# .PCD v0.7 - Point Cloud Data file format
VERSION 0.7
FIELDS x y z
SIZE 4 4 4
TYPE F F F
COUNT 1 1 1
WIDTH 889
HEIGHT 1
POINTS 889
DATA ascii
-0.015162615504530087 0.3762564230330664 4.544425288110414
-0.07532203836571763 0.3689517465997544 4.544425288110414
-0.1335306599980789 0.3520914137309421 4.544425288110414
-0.1882809076769176 0.3261120981916065 4.544425288110414
-0.23815477874633348 0.29168665060791 4.544425288110414
-0.28186056614316723 0.24970667198941493 4.544425288110414
-0.3182663129314347 0.20125942173127218 4.544425288110414
-0.34642912939237835 0.14759965816699844 4.544425288110414
-0.36561961337290627 0.0901171409867319 4.544425288110414
-0.3753407414182203 0.030300637191264513 4.544425288110414
-0.3753407414182204 -0.030300637191264253 4.544425288110414
-0.3656196133729064 -0.09011714098673165 4.544425288110414
-0.34642912939237835 -0.14759965816699835 4.544425288110414
-0.31826631293143487 -0.20125942173127195 4.544425288110414
-0.2818605661431674 -0.2497066719894147 4.544425288110414
-0.23815477874633367 -0.2916866506079098 4.544425288110414
-0.18828090767691785 -0.3261120981916064 4.544425288110414
-0.13353065999807906 -0.35209141373094205 4.544425288110414
-0.07532203836571771 -0.3689517465997544 4.544425288110414
-0.015162615504530179 -0.37625642303306633 4.544425288110414
0.04538951113366898 -0.37381625574822525 4.544425288110414
0.10476607327551939 -0.3616944437961475 4.544425288110414
0.16142924915061946 -0.34020493573909716 4.544425288110414
0.21391149226760067 -0.30990429854783275 4.544425288110414
0.2608535400973867 -0.2715773028094157 4.544425288110414
0.3010396182587089 -0.22621659758122706 4.544425288110414
0.33342892843596483 -0.17499700130179446 4.544425288110414
0.35718260450888495 -0.11924507461033977 4.544425288110414
0.37168543874441246 -0.060404763123032286 4.544425288110414
0.37656181535383537 -9.223104437083822e-17 4.544425288110414
0.7505513316801465 0.0 4.497807543516413
0.7408318890581239 0.12039690046430995 4.497807543516413
0.711925289650578 0.23767558444817555 4.497807543516413
0.6645801991982266 0.3487985956400723 4.497807543516413
0.6000228306745541 0.4508879064203615 4.497807543516413
0.5199251860138985 0.5412994572648807 4.497807543516413
0.42636175213961425 0.6176916364977589 4.497807543516413
0.32175577284243534 0.6780859268038295 4.497807543516413
0.20881648803916672 0.720918147787826 4.497807543516413
0.09046896588193687 0.7450789674249934 4.497807543516413
-0.03022165497047438 0.7499426331778232 4.497807543516413
-0.1501295508338553 0.7353831786580831 4.497807543516413
-0.2661491701900629 0.7017776860901052 4.497807543516413
-0.3752756658400731 0.6499965200792471 4.497807543516413
-0.4746827188680608 0.5813807856257952 4.497807543516413
-0.5617957388167225 0.4977075942099078 4.497807543516413
-0.634358544227752 0.4011440375377509 4.497807543516413
-0.6904917965564908 0.2941910610046319 4.497807543516413
-0.728741674053065 0.17961869052294563 4.497807543516413
-0.7481175249820494 0.06039429030607078 4.497807543516413
-0.7481175249820495 -0.06039429030607026 4.497807543516413
-0.7287416740530651 -0.17961869052294513 4.497807543516413
-0.6904917965564908 -0.2941910610046317 4.497807543516413
-0.6343585442277523 -0.40114403753775046 4.497807543516413
-0.5617957388167228 -0.49770759420990734 4.497807543516413
-0.4746827188680612 -0.5813807856257949 4.497807543516413
-0.3752756658400736 -0.6499965200792468 4.497807543516413
-0.26614917019006323 -0.701777686090105 4.497807543516413
-0.15012955083385546 -0.7353831786580831 4.497807543516413
-0.030221654970474562 -0.7499426331778231 4.497807543516413
0.0904689658819362 -0.7450789674249935 4.497807543516413
0.20881648803916622 -0.7209181477878263 4.497807543516413
0.321755772842435 -0.6780859268038297 4.497807543516413
0.426361752139614 -0.617691636497759 4.497807543516413
0.5199251860138984 -0.5412994572648808 4.497807543516413
0.6000228306745538 -0.4508879064203621 4.497807543516413
0.6645801991982264 -0.3487985956400728 4.497807543516413
0.711925289650578 -0.23767558444817596 4.497807543516413
0.7408318890581239 -0.12039690046431024 4.497807543516413
0.7505513316801465 -1.8383205718757499e-16 4.497807543516413
1.119413821362044 0.0 4.420465212683346
1.104917706375915 0.17956660489456547 4.420465212683346
1.0618048031812106 0.35448252904435834 4.420465212683346
0.9911917133245077 0.5202175418930055 4.420465212683346
0.8949072787417456 0.6724791936643226 4.420465212683346
0.7754452157127322 0.8073239875567976 4.420465212683346
0.635899528919385 0.9212595142393257 4.420465212683346
0.47988437834967557 1.0113349034184074 4.420465212683346
0.31144047445237294 1.0752172498287287 4.420465212683346
0.13493042585890622 1.1112520342541148 4.420465212683346
-0.04507424988861533 1.1185059747061492 4.420465212683346
-0.2239115262404358 1.0967911979374436 4.420465212683346
-0.3969496116779406 1.0466701052600604 4.420465212683346
-0.5597069106810217 0.9694408066469457 4.420465212683346
-0.7079680946979743 0.867103500365495 4.420465212683346
-0.8378932769407745 0.7423086688930856 4.420465212683346
-0.9461174634358919 0.5982884328131437 4.420465212683346
-1.0298377046006517 0.4387728405897921 4.420465212683346
-1.0868856901651047 0.26789326227193144 4.420465212683346
-1.1157839072690603 0.09007538917908184 4.420465212683346
-1.1157839072690603 -0.09007538917908106 4.420465212683346
-1.086885690165105 -0.26789326227193067 4.420465212683346
-1.0298377046006517 -0.4387728405897919 4.420465212683346
-0.9461174634358924 -0.5982884328131431 4.420465212683346
-0.8378932769407751 -0.742308668893085 4.420465212683346
-0.707968094697975 -0.8671035003654944 4.420465212683346
-0.5597069106810224 -0.9694408066469452 4.420465212683346
-0.39694961167794107 -1.0466701052600604 4.420465212683346
-0.22391152624043606 -1.0967911979374436 4.420465212683346
-0.0450742498886156 -1.118505974706149 4.420465212683346
0.1349304258589052 -1.1112520342541148 4.420465212683346
0.31144047445237216 -1.075217249828729 4.420465212683346
0.4798843783496751 -1.0113349034184076 4.420465212683346
0.6358995289193845 -0.921259514239326 4.420465212683346
0.775445215712732 -0.8073239875567978 4.420465212683346
0.894907278741745 -0.6724791936643235 4.420465212683346
0.9911917133245073 -0.5202175418930063 4.420465212683346
1.0618048031812106 -0.35448252904435895 4.420465212683346
1.104917706375915 -0.1795666048945659 4.420465212683346
1.119413821362044 -2.7417731065046684e-16 4.420465212683346
1.4806295795733564 0.0 4.312926622154894
1.4614558153873438 0.23750968733524913 4.312926622154894
1.4044311132502094 0.46886799852661243 4.312926622154894
1.3110323829936072 0.6880828748411615 4.312926622154894
1.1836786026710882 0.8894767661306248 4.312926622154894
1.0256681682971434 1.0678336763979477 4.312926622154894
0.8410934671229966 1.21853425535378 4.312926622154894
0.6347348869564294 1.3376754371625363 4.312926622154894
0.4119370066285829 1.4221715277973528 4.312926622154894
0.1784701742096073 1.4698341228945417 4.312926622154894
-0.05961894197532893 1.4794287862770945 4.312926622154894
-0.2961639588794935 1.4507070212032476 4.312926622154894
-0.5250384848164468 1.3844127063015652 4.312926622154894
-0.7403147897866779 1.2822628295051997 4.312926622154894
-0.9364173305708968 1.146903018966316 4.312926622154894
-1.1082671543707154 0.9818390226766356 4.312926622154894
-1.2514134410182778 0.7913459114359329 4.312926622154894
-1.3621487768806952 0.5803573567639169 4.312926622154894
-1.4376051749257257 0.35433785139940566 4.312926622154894
-1.4758283540794257 0.11914118180875673 4.312926622154894
-1.475828354079426 -0.1191411818087557 4.312926622154894
-1.4376051749257261 -0.35433785139940466 4.312926622154894
-1.3621487768806952 -0.5803573567639165 4.312926622154894
-1.2514134410182784 -0.7913459114359321 4.312926622154894
-1.108267154370716 -0.9818390226766347 4.312926622154894
-0.9364173305708976 -1.1469030189663154 4.312926622154894
-0.7403147897866789 -1.2822628295051992 4.312926622154894
-0.5250384848164474 -1.384412706301565 4.312926622154894
-0.2961639588794938 -1.4507070212032476 4.312926622154894
-0.05961894197532929 -1.4794287862770943 4.312926622154894
0.17847017420960598 -1.4698341228945417 4.312926622154894
0.4119370066285819 -1.4221715277973532 4.312926622154894
0.6347348869564288 -1.3376754371625366 4.312926622154894
0.841093467122996 -1.2185342553537803 4.312926622154894
1.0256681682971431 -1.067833676397948 4.312926622154894
1.1836786026710873 -0.8894767661306259 4.312926622154894
1.3110323829936068 -0.6880828748411625 4.312926622154894
1.4044311132502092 -0.46886799852661326 4.312926622154894
1.4614558153873438 -0.23750968733524971 4.312926622154894
1.4806295795733564 -3.6264965506948045e-16 4.312926622154894
1.8317311364175404 0.0 4.175926369547061
1.8080106992829759 0.2938303377797784 4.175926369547061
1.7374637347412951 0.5800506241530338 4.175926369547061
1.621917372117513 0.8512479040472962 4.175926369547061
1.4643642015098741 1.1003983103666792 4.175926369547061
1.2688847672782446 1.3210489784601966 4.175926369547061
1.0405418840886025 1.5074851719266877 4.175926369547061
0.7852495126725627 1.6548782912857962 4.175926369547061
0.50961959135089 1.7594109321681635 4.175926369547061
0.22079079030408091 1.8183757540834053 4.175926369547061
-0.07375637623553917 1.830245599116713 4.175926369547061
-0.3663932913731006 1.794713044516666 4.175926369547061
-0.649540812721637 1.7126983647830136 4.175926369547061
-0.9158655682087697 1.5863256970405293 4.175926369547061
-1.1584698865613383 1.4188680270032352 4.175926369547061
-1.371070443368194 1.2146624203636327 4.175926369547061
-1.548160995881973 0.9789976950694169 4.175926369547061
-1.6851549918139546 0.7179774437167261 4.175926369547061
-1.778504358629134 0.4383619537079674 4.175926369547061
-1.8257913967611648 0.14739311935910876 4.175926369547061
-1.825791396761165 -0.1473931193591075 4.175926369547061
-1.7785043586291345 -0.43836195370796616 4.175926369547061
-1.6851549918139546 -0.7179774437167257 4.175926369547061
-1.5481609958819738 -0.9789976950694159 4.175926369547061
-1.3710704433681948 -1.2146624203636316 4.175926369547061
-1.1584698865613394 -1.4188680270032343 4.175926369547061
-0.915865568208771 -1.5863256970405286 4.175926369547061
-0.6495408127216378 -1.7126983647830134 4.175926369547061
-0.36639329137310106 -1.794713044516666 4.175926369547061
-0.07375637623553963 -1.8302455991167128 4.175926369547061
0.22079079030407928 -1.8183757540834056 4.175926369547061
0.5096195913508887 -1.7594109321681637 4.175926369547061
0.7852495126725619 -1.6548782912857967 4.175926369547061
1.0405418840886018 -1.5074851719266882 4.175926369547061
1.2688847672782442 -1.3210489784601969 4.175926369547061
1.464364201509873 -1.1003983103666808 4.175926369547061
1.6219173721175124 -0.8512479040472974 4.175926369547061
1.737463734741295 -0.5800506241530349 4.175926369547061
1.8080106992829759 -0.2938303377797791 4.175926369547061
1.8317311364175404 -4.48644734622457e-16 4.175926369547061
2.170320112249055 0.0 4.01040030550159
2.1422150368037745 0.3481438290772289 4.01040030550159
2.058627717159048 0.6872709158528949 4.01040030550159
1.9217230209872769 1.0085980469147686 4.01040030550159
1.7350467080065815 1.3038030183537217 4.01040030550159
1.5034335966666081 1.5652401764735207 4.01040030550159
1.2328823448902935 1.7861384362054817 4.01040030550159
0.9304000879846116 1.9607766486550624 4.01040030550159
0.6038209575168032 2.08463177585305 4.01040030550159
0.26160318142186156 2.1544960350631217 4.01040030550159
-0.08738997965807908 2.1685599786697423 4.01040030550159
-0.4341197861687197 2.1264593579209494 4.01040030550159
-0.7696061182502191 2.0292845567796993 4.01040030550159
-1.0851600561245272 1.8795523515519763 4.01040030550159
-1.3726089185535548 1.6811407277024704 4.01040030550159
-1.6245079309903279 1.4391884420680552 4.01040030550159
-1.834333041329197 1.1599619317549736 4.01040030550159
-1.9966498894284428 0.8506930167093999 4.01040030550159
-2.1072545541834105 0.5193915993795303 4.01040030550159
-2.1632824328749045 0.17463821244958128 4.01040030550159
-2.163282432874905 -0.17463821244957975 4.01040030550159
-2.107254554183411 -0.5193915993795288 4.01040030550159
-1.9966498894284428 -0.8506930167093995 4.01040030550159
-1.8343330413291978 -1.1599619317549723 4.01040030550159
-1.6245079309903288 -1.439188442068054 4.01040030550159
-1.3726089185535562 -1.6811407277024695 4.01040030550159
-1.0851600561245285 -1.8795523515519756 4.01040030550159
-0.7696061182502201 -2.0292845567796993 4.01040030550159
-0.43411978616872016 -2.1264593579209494 4.01040030550159
-0.08738997965807961 -2.168559978669742 4.01040030550159
0.2616031814218596 -2.154496035063122 4.01040030550159
0.6038209575168018 -2.0846317758530506 4.01040030550159
0.9304000879846107 -1.9607766486550628 4.01040030550159
1.2328823448902928 -1.7861384362054822 4.01040030550159
1.5034335966666077 -1.565240176473521 4.01040030550159
1.7350467080065803 -1.3038030183537235 4.01040030550159
1.9217230209872762 -1.0085980469147702 4.01040030550159
2.058627717159048 -0.6872709158528961 4.01040030550159
2.1422150368037745 -0.3481438290772298 4.01040030550159
2.170320112249055 -5.315751157181859e-16 4.01040030550159
2.494083601038266 0.0 3.8174791408771305
2.461785873445732 0.40007914500888336 3.8174791408771305
2.365729184847561 0.7897964503139399 3.8174791408771305
2.208401353022189 1.1590584424168477 3.8174791408771305
1.9938770861733868 1.4983014296865398 3.8174791408771305
1.7277124501281267 1.7987391969488713 3.8174791408771305
1.416800969150132 2.052590563844444 3.8174791408771305
1.0691950872824474 2.253280913312649 3.8174791408771305
0.6938976142764803 2.395612470720048 3.8174791408771305
0.3006285575483946 2.475898923493117 3.8174791408771305
-0.10042662090728068 2.492060894677566 3.8174791408771305
-0.49888080263313417 2.4436797977092097 3.8174791408771305
-0.8844142336208144 2.3320086775861086 3.8174791408771305
-1.2470418005191326 2.1599397576613115 3.8174791408771305
-1.5773716398249171 1.9319295325772254 3.8174791408771305
-1.866848382214426 1.6538833473952708 3.8174791408771305
-2.1079747321149074 1.3330024522607185 3.8174791408771305
-2.294505643721781 0.9775974938065773 3.8174791408771305
-2.4216100644046064 0.5968732737711777 3.8174791408771305
-2.4859960564325787 0.20069034946820527 3.8174791408771305
-2.485996056432579 -0.20069034946820355 3.8174791408771305
-2.421610064404607 -0.596873273771176 3.8174791408771305
-2.294505643721781 -0.9775974938065768 3.8174791408771305
-2.1079747321149087 -1.333002452260717 3.8174791408771305
-1.866848382214427 -1.6538833473952694 3.8174791408771305
-1.5773716398249185 -1.9319295325772243 3.8174791408771305
-1.2470418005191342 -2.1599397576613106 3.8174791408771305
-0.8844142336208155 -2.3320086775861086 3.8174791408771305
-0.4988808026331347 -2.4436797977092097 3.8174791408771305
-0.10042662090728127 -2.4920608946775658 3.8174791408771305
0.30062855754839235 -2.4758989234931175 3.8174791408771305
0.6938976142764787 -2.3956124707200486 3.8174791408771305
1.0691950872824463 -2.2532809133126492 3.8174791408771305
1.416800969150131 -2.0525905638444444 3.8174791408771305
1.7277124501281262 -1.7987391969488717 3.8174791408771305
1.9938770861733854 -1.4983014296865418 3.8174791408771305
2.208401353022188 -1.1590584424168495 3.8174791408771305
2.365729184847561 -0.7897964503139412 3.8174791408771305
2.461785873445732 -0.4000791450088843 3.8174791408771305
2.494083601038266 -6.108742997634833e-16 3.8174791408771305
2.800809969864885 0.0 3.5984807228475546
2.7645402163540194 0.44928151470521105 3.5984807228475546
2.65667032338573 0.8869268741762757 3.5984807228475546
2.4799940645264478 1.301601293487421 3.5984807228475546
2.2390872620768603 1.6825649229969362 3.5984807228475546
1.9401892756778933 2.01995100481151 3.5984807228475546
1.5910414061733924 2.305021416632898 3.5984807228475546
1.2006863999845887 2.530392984535522 3.5984807228475546
0.7792342467277247 2.6902287032929397 3.5984807228475546
0.3376003357935251 2.7803889117471745 3.5984807228475546
-0.1127772465044316 2.7985385078582388 3.5984807228475546
-0.5602339573570855 2.7442074266203997 3.5984807228475546
-0.9931809029915447 2.6188028144989146 3.5984807228475546
-1.4004049849324418 2.4255725850757184 3.5984807228475546
-1.771359313362474 2.1695212997937037 3.5984807228475546
-2.0964363660286436 1.857280552444125 3.5984807228475546
-2.367216818022015 1.496937214370818 3.5984807228475546
-2.576687597870385 1.0978239887502381 3.5984807228475546
-2.719423522405617 0.6702776984814305 3.5984807228475546
-2.79172780615798 0.22537156790262428 3.5984807228475546
-2.7917278061579807 -0.22537156790262233 3.5984807228475546
-2.719423522405618 -0.6702776984814287 3.5984807228475546
-2.576687597870385 -1.0978239887502375 3.5984807228475546
-2.3672168180220163 -1.4969372143708164 3.5984807228475546
-2.096436366028645 -1.8572805524441234 3.5984807228475546
-1.7713593133624757 -2.1695212997937023 3.5984807228475546
-1.4004049849324438 -2.4255725850757175 3.5984807228475546
-0.9931809029915459 -2.618802814498914 3.5984807228475546
-0.560233957357086 -2.7442074266203997 3.5984807228475546
-0.11277724650443229 -2.7985385078582383 3.5984807228475546
0.3376003357935226 -2.7803889117471745 3.5984807228475546
0.7792342467277229 -2.6902287032929406 3.5984807228475546
1.2006863999845874 -2.5303929845355224 3.5984807228475546
1.5910414061733913 -2.305021416632899 3.5984807228475546
1.9401892756778927 -2.019951004811511 3.5984807228475546
2.239087262076859 -1.6825649229969384 3.5984807228475546
2.479994064526447 -1.3016012934874228 3.5984807228475546
2.6566703233857294 -0.8869268741762772 3.5984807228475546
2.7645402163540194 -0.44928151470521216 3.5984807228475546
2.800809969864885 -6.860005929230053e-16 3.5984807228475546
3.088403966613379 0.0 3.3549010326694804
3.0484099463777077 0.4954148360906395 3.3549010326694804
2.9294637097869054 0.9779986881559686 3.3549010326694804
2.7346459018890914 1.4352528879171265 3.3549010326694804
2.469002201575734 1.8553347917848766 3.3549010326694804
2.1394126411487355 2.2273644991079133 3.3549010326694804
1.7544134170977266 2.5417066358847817 3.3549010326694804
1.3239758070948422 2.790219905889286 3.3549010326694804
0.8592479191406873 2.9664679459663224 3.3549010326694804
0.3722659614229488 3.0658860244567316 3.3549010326694804
-0.12435748915333374 3.085899265349524 3.3549010326694804
-0.6177601460825285 3.0259893362180486 3.3549010326694804
-1.0951631397226558 2.887707872757573 3.3549010326694804
-1.544201983306689 2.674636292235814 3.3549010326694804
-1.9532468066550512 2.3922930366669335 3.3549010326694804
-2.311703563704376 2.047990648062081 3.3549010326694804
-2.6102884127357564 1.650646377432398 3.3549010326694804
-2.8412681629986825 1.2105512326718548 3.3549010326694804
-2.998660560289422 0.7391034468584102 3.3549010326694804
-3.078389224192568 0.24851327000450488 3.3549010326694804
-3.0783892241925686 -0.24851327000450274 3.3549010326694804
-2.9986605602894225 -0.7391034468584082 3.3549010326694804
-2.8412681629986825 -1.2105512326718542 3.3549010326694804
-2.6102884127357577 -1.6506463774323963 3.3549010326694804
-2.3117035637043775 -2.0479906480620795 3.3549010326694804
-1.953246806655053 -2.392293036666932 3.3549010326694804
-1.544201983306691 -2.674636292235813 3.3549010326694804
-1.095163139722657 -2.8877078727575727 3.3549010326694804
-0.6177601460825292 -3.0259893362180486 3.3549010326694804
-0.12435748915333449 -3.085899265349524 3.3549010326694804
0.37226596142294605 -3.0658860244567316 3.3549010326694804
0.8592479191406853 -2.9664679459663232 3.3549010326694804
1.3239758070948409 -2.7902199058892863 3.3549010326694804
1.7544134170977255 -2.541706635884782 3.3549010326694804
2.139412641148735 -2.227364499107914 3.3549010326694804
2.4690022015757327 -1.855334791784879 3.3549010326694804
2.7346459018890905 -1.4352528879171285 3.3549010326694804
2.929463709786905 -0.9779986881559702 3.3549010326694804
3.0484099463777077 -0.49541483609064074 3.3549010326694804
3.088403966613379 -7.564408064374128e-16 3.3549010326694804
3.35490103266948 0.0 3.088403966613379
3.311455945420615 0.5381639718015339 3.088403966613379
3.1822458886131124 1.0623897794179324 3.088403966613379
2.9706173348473675 1.5591002497950754 3.088403966613379
2.682051352502549 2.0154308426601966 3.088403966613379
2.3240216489446532 2.419562835357519 3.088403966613379
1.9058010054314816 2.7610294215569486 3.088403966613379
1.438221116948831 3.030986796040062 3.088403966613379
0.9333920569999911 3.2224432046098297 3.088403966613379
0.40438863306313483 3.330440026851718 3.088403966613379
-0.13508824405448347 3.352180201797782 3.088403966613379
-0.6710664066096803 3.287100670336507 3.088403966613379
-1.1896643017286466 3.136886958148035 3.088403966613379
-1.6774505163347393 2.905429521474417 3.088403966613379
-2.121791643691968 2.5987229863465013 3.088403966613379
-2.511179482003431 2.2247108909185753 3.088403966613379
-2.8355290907928827 1.7930799520027072 3.088403966613379
-3.086439985565683 1.3150091841915212 3.088403966613379
-3.2574137059446433 0.8028803692523112 3.088403966613379
-3.344022122380312 0.269957374483114 3.088403966613379
-3.3440221223803124 -0.2699573744831117 3.088403966613379
-3.2574137059446437 -0.802880369252309 3.088403966613379
-3.086439985565683 -1.3150091841915206 3.088403966613379
-2.835529090792884 -1.7930799520027052 3.088403966613379
-2.511179482003433 -2.2247108909185735 3.088403966613379
-2.12179164369197 -2.5987229863465 3.088403966613379
-1.6774505163347415 -2.9054295214744155 3.088403966613379
-1.189664301728648 -3.1368869581480348 3.088403966613379
-0.6710664066096811 -3.287100670336507 3.088403966613379
-0.1350882440544843 -3.3521802017977818 3.088403966613379
0.4043886330631318 -3.3304400268517185 3.088403966613379
0.9333920569999888 -3.22244320460983 3.088403966613379
1.4382211169488295 -3.0309867960400623 3.088403966613379
1.9058010054314805 -2.761029421556949 3.088403966613379
2.3240216489446524 -2.41956283535752 3.088403966613379
2.682051352502547 -2.0154308426601992 3.088403966613379
2.970617334847366 -1.5591002497950777 3.088403966613379
3.182245888613112 -1.0623897794179344 3.088403966613379
3.311455945420615 -0.5381639718015351 3.088403966613379
3.35490103266948 -8.217137622229657e-16 3.088403966613379
3.5984807228475546 0.0 2.800809969864885
3.5518813425841453 0.5772369018939352 2.800809969864885
3.4132901012652117 1.1395236712374077 2.800809969864885
3.1862964392422857 1.6722973760600686 2.800809969864885
2.8767793731274773 2.1617594572601586 2.800809969864885
2.4927552323513287 2.5952331040371948 2.800809969864885
2.044170040441343 2.9614915766328793 2.800809969864885
1.5426419182370323 3.2510489729937055 2.800809969864885
1.0011601806628903 3.4564059086514285 2.800809969864885
0.4337489202948201 3.5722437468415476 2.800809969864885
-0.14489620927106367 3.5955623484017543 2.800809969864885
-0.7197886031273036 3.5257577738003363 2.800809969864885
-1.2760388502500983 3.364637924852816 2.800809969864885
-1.7992403614237764 3.116375721014572 2.800809969864885
-2.275842492334046 2.787401022958881 2.800809969864885
-2.693501498137907 2.3862341025629297 2.800809969864885
-3.0414002299712206 1.9232649723416857 2.800809969864885
-3.310528293422297 1.4104842895813887 2.800809969864885
-3.493915413014218 0.8611728046142347 2.800809969864885
-3.5868119586783744 0.2895573963608269 2.800809969864885
-3.586811958678375 -0.2895573963608244 2.800809969864885
-3.4939154130142183 -0.8611728046142324 2.800809969864885
-3.310528293422297 -1.4104842895813878 2.800809969864885
-3.041400229971222 -1.9232649723416837 2.800809969864885
-2.6935014981379086 -2.386234102562928 2.800809969864885
-2.275842492334048 -2.7874010229588793 2.800809969864885
-1.7992403614237789 -3.1163757210145713 2.800809969864885
-1.2760388502501 -3.3646379248528158 2.800809969864885
-0.7197886031273044 -3.5257577738003363 2.800809969864885
-0.14489620927106456 -3.595562348401754 2.800809969864885
0.4337489202948168 -3.5722437468415476 2.800809969864885
1.0011601806628878 -3.4564059086514294 2.800809969864885
1.5426419182370306 -3.2510489729937064 2.800809969864885
2.0441700404413417 -2.96149157663288 2.800809969864885
2.492755232351328 -2.5952331040371956 2.800809969864885
2.8767793731274756 -2.1617594572601617 2.800809969864885
3.1862964392422843 -1.672297376060071 2.800809969864885
3.4132901012652113 -1.1395236712374097 2.800809969864885
3.5518813425841453 -0.5772369018939366 2.800809969864885
3.5984807228475546 -8.813735798057423e-16 2.800809969864885
3.81747914087713 0.0 2.494083601038267
3.768043788617525 0.6123667186358825 2.494083601038267
3.6210180814950386 1.2088734609205296 2.494083601038267
3.3802099080950936 1.77407101555934 2.494083601038267
3.0518560736180365 2.2933210627717813 2.494083601038267
2.644460769900491 2.7531752990845484 2.494083601038267
2.1685753213138375 3.1417237413274544 2.494083601038267
1.6365249110053477 3.448903188941512 2.494083601038267
1.062089365128794 3.6667578555874543 2.494083601038267
0.46014626258527264 3.789645419832942 2.494083601038267
-0.15371438645549917 3.814383158313884 2.494083601038267
-0.7635939136295257 3.740330376597759 2.494083601038267
-1.35369675953797 3.5694050028328794 2.494083601038267
-1.9087395704385641 3.3060339144167887 2.494083601038267
-2.414347029079554 2.957038284196997 2.494083601038267
-2.857424167865512 2.531456915677231 2.494083601038267
-3.226495521639593 2.0403121427545443 2.494083601038267
-3.512002336203308 1.4963243570611608 2.494083601038267
-3.7065501350292838 0.913582556502907 2.494083601038267
-3.8051002323191847 0.307179447614058 2.494083601038267
-3.8051002323191847 -0.3071794476140554 2.494083601038267
-3.7065501350292847 -0.9135825565029044 2.494083601038267
-3.512002336203308 -1.49632435706116 2.494083601038267
-3.2264955216395945 -2.040312142754542 2.494083601038267
-2.8574241678655135 -2.5314569156772286 2.494083601038267
-2.4143470290795563 -2.957038284196995 2.494083601038267
-1.9087395704385668 -3.3060339144167874 2.494083601038267
-1.3536967595379716 -3.569405002832879 2.494083601038267
-0.7635939136295266 -3.740330376597759 2.494083601038267
-0.1537143864555001 -3.8143831583138836 2.494083601038267
0.4601462625852692 -3.7896454198329423 2.494083601038267
1.0620893651287915 -3.666757855587455 2.494083601038267
1.6365249110053461 -3.4489031889415123 2.494083601038267
2.168575321313836 -3.1417237413274552 2.494083601038267
2.6444607699004905 -2.7531752990845493 2.494083601038267
3.0518560736180342 -2.2933210627717844 2.494083601038267
3.3802099080950927 -1.7740710155593427 2.494083601038267
3.621018081495038 -1.2088734609205316 2.494083601038267
3.768043788617525 -0.6123667186358841 2.494083601038267
3.81747914087713 -9.35012722137393e-16 2.494083601038267
4.010400305501589 0.0 2.1703201122490556
3.9584666748285096 0.6433134497578629 2.1703201122490556
3.8040108365642227 1.2699654190840006 2.1703201122490556
3.551033115787856 1.8637259511379967 2.1703201122490556
3.2060855025844357 2.4092169600277065 2.1703201122490556
2.7781019589432887 2.8923105151561272 2.1703201122490556
2.2781670338353104 3.3004947472027983 2.1703201122490556
1.7192287792170675 3.62319789896702 2.1703201122490556
1.1157634022864193 3.852062128326265 2.1703201122490556
0.48340033932009563 3.9811599719569744 2.1703201122490556
-0.16148253851610622 4.00714786352109 2.1703201122490556
-0.8021831034276156 3.9293527302779117 2.1703201122490556
-1.4221075473277407 3.7497894253145354 2.1703201122490556
-2.0052001527507937 3.47310854390925 2.1703201122490556
-2.5363591275007678 3.106475975556673 2.1703201122490556
-3.001827733136606 2.659387311193912 2.1703201122490556
-3.389550577271748 2.1434219123830935 2.1703201122490556
-3.6894858419045304 1.5719430119292674 2.1703201122490556
-3.8938653612297065 0.9597516131701388 2.1703201122490556
-3.997395813052377 0.3227031517642229 2.1703201122490556
-3.9973958130523775 -0.3227031517642201 2.1703201122490556
-3.8938653612297074 -0.959751613170136 2.1703201122490556
-3.6894858419045304 -1.5719430119292666 2.1703201122490556
-3.38955057727175 -2.143421912383091 2.1703201122490556
-3.001827733136608 -2.65938731119391 2.1703201122490556
-2.53635912750077 -3.106475975556671 2.1703201122490556
-2.0052001527507963 -3.4731085439092486 2.1703201122490556
-1.4221075473277425 -3.749789425314535 2.1703201122490556
-0.8021831034276165 -3.9293527302779117 2.1703201122490556
-0.1614825385161072 -4.007147863521089 2.1703201122490556
0.483400339320092 -3.981159971956975 2.1703201122490556
1.1157634022864167 -3.8520621283262657 2.1703201122490556
1.7192287792170657 -3.623197898967021 2.1703201122490556
2.278167033835309 -3.3004947472027992 2.1703201122490556
2.778101958943288 -2.892310515156128 2.1703201122490556
3.2060855025844335 -2.4092169600277096 2.1703201122490556
3.5510331157878547 -1.8637259511379995 2.1703201122490556
3.8040108365642222 -1.2699654190840028 2.1703201122490556
3.9584666748285096 -0.6433134497578644 2.1703201122490556
4.010400305501589 -9.822647794864177e-16 2.1703201122490556
4.175926369547061 0.0 1.8317311364175408
4.121849219818013 0.6698656977067406 1.8317311364175408
3.9610183404034296 1.3223822257071343 1.8317311364175408
3.697599166599578 1.9406497486771284 1.8317311364175408
3.338414116640253 2.508655462532784 1.8317311364175408
2.8927658946481767 3.0116883176449103 1.8317311364175408
2.3721965554847064 3.4367200272971017 1.8317311364175408
1.7901885715916868 3.7727424934682476 1.8317311364175408
1.161815644037223 4.011052910788995 1.8317311364175408
0.5033523015758669 4.145479164629437 1.8317311364175408
-0.16814760109750834 4.172539685625968 1.8317311364175408
-0.835292569226329 4.091533620499015 1.8317311364175408
-1.4808038985711807 3.9045589837848382 1.8317311364175408
-2.0879631847735296 3.6164583203610787 1.8317311364175408
-2.6410453212468306 3.2346932860780973 1.8317311364175408
-3.1257257711770996 2.7691513947918818 1.8317311364175408
-3.529451565502068 2.2318899369488396 1.8317311364175408
-3.841766418216119 1.6368237020966527 1.8317311364175408
-4.054581538685398 0.9993645931440858 1.8317311364175408
-4.1623851270763925 0.33602246617114706 1.8317311364175408
-4.1623851270763925 -0.3360224661711442 1.8317311364175408
-4.054581538685399 -0.999364593144083 1.8317311364175408
-3.841766418216119 -1.6368237020966518 1.8317311364175408
-3.52945156550207 -2.2318899369488374 1.8317311364175408
-3.1257257711771014 -2.7691513947918796 1.8317311364175408
-2.641045321246833 -3.2346932860780955 1.8317311364175408
-2.0879631847735323 -3.6164583203610774 1.8317311364175408
-1.4808038985711827 -3.904558983784838 1.8317311364175408
-0.8352925692263299 -4.091533620499015 1.8317311364175408
-0.16814760109750937 -4.172539685625967 1.8317311364175408
0.5033523015758631 -4.145479164629437 1.8317311364175408
1.1618156440372203 -4.011052910788996 1.8317311364175408
1.790188571591685 -3.7727424934682485 1.8317311364175408
2.372196555484705 -3.4367200272971026 1.8317311364175408
2.892765894648176 -3.011688317644911 1.8317311364175408
3.3384141166402506 -2.5086554625327873 1.8317311364175408
3.6975991665995767 -1.9406497486771312 1.8317311364175408
3.961018340403429 -1.3223822257071365 1.8317311364175408
4.121849219818013 -0.6698656977067423 1.8317311364175408
4.175926369547061 -1.022806972388167e-15 1.8317311364175408
4.312926622154894 0.0 1.4806295795733568
4.257075355136034 0.6918420837053999 1.4806295795733568
4.090968072557923 1.3657658208507515 1.4806295795733568
3.818906865787196 2.0043169406398382 1.4806295795733568
3.447937977172036 2.5909573044855887 1.4806295795733568
2.9876693060665893 3.1104932351124 1.4806295795733568
2.4500215692844796 3.5494690248167036 1.4806295795733568
1.8489195607950042 3.8965154312285266 1.4806295795733568
1.1999315068736875 4.142644134716892 1.4806295795733568
0.5198658572193557 4.281480531146908 1.4806295795733568
-0.17366404506399005 4.30942883077844 1.4806295795733568
-0.8626961398017041 4.225765187331598 1.4806295795733568
-1.5293848576719802 4.032656445225166 1.4806295795733568
-2.156463311077446 3.7351040194443472 1.4806295795733568
-2.727690497464053 3.340814361519767 1.4806295795733568
-3.2282719327562184 2.8599993664808485 1.4806295795733568
-3.6452428207232037 2.3051118901386025 1.4806295795733568
-3.967803834391391 1.690523226661319 1.4806295795733568
-4.187600812940276 1.0321508996044926 1.4806295795733568
-4.298941130079482 0.3470464064118241 1.4806295795733568
-4.298941130079483 -0.3470464064118211 1.4806295795733568
-4.187600812940277 -1.0321508996044897 1.4806295795733568
-3.967803834391391 -1.6905232266613182 1.4806295795733568
-3.645242820723206 -2.3051118901386003 1.4806295795733568
-3.22827193275622 -2.859999366480846 1.4806295795733568
-2.7276904974640557 -3.3408143615197647 1.4806295795733568
-2.1564633110774487 -3.735104019444346 1.4806295795733568
-1.529384857671982 -4.032656445225166 1.4806295795733568
-0.8626961398017051 -4.225765187331598 1.4806295795733568
-0.1736640450639911 -4.30942883077844 1.4806295795733568
0.5198658572193519 -4.281480531146908 1.4806295795733568
1.1999315068736847 -4.1426441347168925 1.4806295795733568
1.8489195607950022 -3.8965154312285275 1.4806295795733568
2.4500215692844782 -3.5494690248167045 1.4806295795733568
2.9876693060665884 -3.1104932351124015 1.4806295795733568
3.447937977172034 -2.5909573044855922 1.4806295795733568
3.818906865787194 -2.004316940639841 1.4806295795733568
4.090968072557923 -1.365765820850754 1.4806295795733568
4.257075355136034 -0.6918420837054016 1.4806295795733568
4.312926622154894 -1.0563623565558793e-15 1.4806295795733568
4.420465212683346 0.0 1.1194138213620444
4.363221349160853 0.7090924867537071 1.1194138213620444
4.192972344589792 1.3998198505696344 1.1194138213620444
3.9141275587608666 2.054292615547336 1.1194138213620444
3.5339089251566196 2.6555602808526118 1.1194138213620444
3.062163906667745 3.1880503297854244 1.1194138213620444
2.51111045147685 3.6379715497825638 1.1194138213620444
1.8950205546183203 3.9936712175788442 1.1194138213620444
1.2298506208036633 4.24593689861878 1.1194138213620444
0.5328282019209918 4.388235044272498 1.1194138213620444
-0.1779941875096596 4.416880207313347 1.1194138213620444
-0.8842066209798556 4.331130493065177 1.1194138213620444
-1.5675185674190353 4.133206774084765 1.1194138213620444
-2.210232606341672 3.828235170729159 1.1194138213620444
-2.7957027817418174 3.424114287331058 1.1194138213620444
-3.3087657236099357 2.9313106424955437 1.1194138213620444
-3.736133371251205 2.362587591766011 1.1194138213620444
-4.0667371270776105 1.7326747634198871 1.1194138213620444
-4.292014527471407 1.0578865688333567 1.1194138213620444
-4.406131006095169 0.3556996677962816 1.1194138213620444
-4.40613100609517 -0.35569966779627854 1.1194138213620444
-4.292014527471408 -1.0578865688333536 1.1194138213620444
-4.0667371270776105 -1.732674763419886 1.1194138213620444
-3.7361333712512073 -2.3625875917660086 1.1194138213620444
-3.3087657236099375 -2.9313106424955415 1.1194138213620444
-2.7957027817418196 -3.424114287331056 1.1194138213620444
-2.2102326063416746 -3.8282351707291578 1.1194138213620444
-1.5675185674190373 -4.133206774084765 1.1194138213620444
-0.8842066209798566 -4.331130493065177 1.1194138213620444
-0.17799418750966067 -4.416880207313347 1.1194138213620444
0.5328282019209878 -4.388235044272499 1.1194138213620444
1.2298506208036604 -4.245936898618781 1.1194138213620444
1.8950205546183183 -3.993671217578845 1.1194138213620444
2.5111104514768487 -3.6379715497825647 1.1194138213620444
3.062163906667744 -3.1880503297854252 1.1194138213620444
3.533908925156617 -2.6555602808526153 1.1194138213620444
3.9141275587608653 -2.054292615547339 1.1194138213620444
4.1929723445897915 -1.3998198505696369 1.1194138213620444
4.363221349160853 -0.7090924867537087 1.1194138213620444
4.420465212683346 -1.0827017146909767e-15 1.1194138213620444
4.497807543516413 0.0 0.7505513316801469
4.439562117122661 0.721499069107164 0.7505513316801469
4.266334363890089 1.4243116913104716 0.7505513316801469
3.98261079163507 2.090235388865338 0.7505513316801469
3.595739691845875 2.7020230877987115 0.7505513316801469
3.1157408227930072 3.2438298080655072 0.7505513316801469
2.555045903053134 3.7016230402087875 0.7505513316801469
1.9281766365280304 4.063546179983759 0.7505513316801469
1.2513686079414266 4.320225608179726 0.7505513316801469
0.5421507897228187 4.465013462433912 0.7505513316801469
-0.18110844917090643 4.494159813374694 0.7505513316801469
-0.8996770743629963 4.4069097858225765 0.7505513316801469
-1.5949445359077015 4.205523109660832 0.7505513316801469
-2.2489037717582057 3.895215594018496 0.7505513316801469
-2.844617581214959 3.484024040553668 0.7505513316801469
-3.3666572895270916 2.9825980945121064 0.7505513316801469
-3.8015023424641616 2.403924424509356 0.7505513316801469
-4.137890481568693 1.762990374635201 0.7505513316801469
-4.367109430734432 1.0763958001142202 0.7505513316801469
-4.483222539581163 0.3619231397749724 0.7505513316801469
-4.483222539581163 -0.36192313977496926 0.7505513316801469
-4.367109430734433 -1.0763958001142173 0.7505513316801469
-4.137890481568693 -1.7629903746351998 0.7505513316801469
-3.801502342464164 -2.4039244245093534 0.7505513316801469
-3.366657289527094 -2.982598094512104 0.7505513316801469
-2.844617581214961 -3.484024040553666 0.7505513316801469
-2.2489037717582083 -3.8952155940184947 0.7505513316801469
-1.5949445359077035 -4.205523109660832 0.7505513316801469
-0.8996770743629973 -4.4069097858225765 0.7505513316801469
-0.18110844917090754 -4.494159813374694 0.7505513316801469
0.5421507897228146 -4.465013462433913 0.7505513316801469
1.2513686079414237 -4.320225608179728 0.7505513316801469
1.9281766365280284 -4.06354617998376 0.7505513316801469
2.555045903053132 -3.7016230402087884 0.7505513316801469
3.115740822793006 -3.243829808065508 0.7505513316801469
3.595739691845872 -2.702023087798715 0.7505513316801469
3.982610791635069 -2.0902353888653407 0.7505513316801469
4.266334363890088 -1.424311691310474 0.7505513316801469
4.439562117122661 -0.7214990691071658 0.7505513316801469
4.497807543516413 -1.101645122269639e-15 0.7505513316801469
4.544425288110414 0.0 0.3765618153538357
4.485576174167757 0.7289770812281876 0.3765618153538357
4.3105529934788835 1.4390740389666035 0.3765618153538357
4.0238887544881905 2.1118997350065882 0.3765618153538357
3.6330079104077413 2.7300283372397796 0.3765618153538357
3.148034069778962 3.2774506395563496 0.3765618153538357
2.581527800329103 3.7399886918740015 0.3765618153538357
1.9481613168648662 4.105663001597765 0.3765618153538357
1.2643384786158745 4.36500279618567 0.3765618153538357
0.5477699378971701 4.511291311182814 0.3765618153538357
-0.1829855564827645 4.540739750892592 0.3765618153538357
-0.9090018210676858 4.452585416195073 0.3765618153538357
-1.611475415963635 4.249111458053584 0.3765618153538357
-2.272212644055206 3.9355877451040358 0.3765618153538357
-2.874100758204121 3.5201343768253954 0.3765618153538357
-3.401551172411197 3.013511377228471 0.3765618153538357
-3.8409031980054245 2.4288400158860037 0.3765618153538357
-4.180777848304911 1.7812629739430343 0.3765618153538357
-4.412372548394835 1.0875521566293214 0.3765618153538357
-4.529689117193968 0.36567430972376436 0.3765618153538357
-4.529689117193969 -0.3656743097237612 0.3765618153538357
-4.412372548394836 -1.0875521566293183 0.3765618153538357
-4.180777848304911 -1.7812629739430332 0.3765618153538357
-3.8409031980054262 -2.428840015886001 0.3765618153538357
-3.4015511724111986 -3.0135113772284683 0.3765618153538357
-2.8741007582041234 -3.5201343768253937 0.3765618153538357
-2.2722126440552093 -3.935587745104034 0.3765618153538357
-1.611475415963637 -4.249111458053583 0.3765618153538357
-0.9090018210676868 -4.452585416195073 0.3765618153538357
-0.1829855564827656 -4.540739750892591 0.3765618153538357
0.547769937897166 -4.511291311182815 0.3765618153538357
1.2643384786158716 -4.365002796185671 0.3765618153538357
1.9481613168648642 -4.105663001597766 0.3765618153538357
2.581527800329101 -3.739988691874003 0.3765618153538357
3.148034069778961 -3.277450639556351 0.3765618153538357
3.633007910407739 -2.730028337239783 0.3765618153538357
4.02388875448819 -2.1118997350065913 0.3765618153538357
4.3105529934788835 -1.439074038966606 0.3765618153538357
4.485576174167757 -0.7289770812281894 0.3765618153538357
4.544425288110414 -1.1130631766097415e-15 0.3765618153538357
4.56 0.0 2.792194702055965e-16
4.5009491976288825 0.7314754407113866 2.792194702055965e-16
4.325326175278983 1.4440060517347144 2.792194702055965e-16
4.037679476978637 2.119137664519584 2.792194702055965e-16
3.6454590011199652 2.7393847249251833 2.792194702055965e-16
3.1588230520037732 3.2886831598877935 2.792194702055965e-16
2.5903752450940707 3.752806428475073 2.792194702055965e-16
1.954838079997927 4.119733981823343 2.792194702055965e-16
1.2686716354590244 4.379962589039057 2.792194702055965e-16
0.5496472619642738 4.526752465887125 2.792194702055965e-16
-0.18361268689893193 4.556301831662357 2.792194702055965e-16
-0.9121171636187622 4.46784537331274 2.792194702055965e-16
-1.6169982849139615 4.263674066645491 2.792194702055965e-16
-2.279999999999999 3.94907584125704 2.792194702055965e-16
-2.8839509127149197 3.5321986259341047 2.792194702055965e-16
-3.4132090116602196 3.0238393215780275 2.792194702055965e-16
-3.854066790079703 2.4371641671427735 2.792194702055965e-16
-4.195106263084238 1.7873677409619424 2.792194702055965e-16
-4.427494687462796 1.0912794291512649 2.792194702055965e-16
-4.545213325091997 0.36692755334827093 2.792194702055965e-16
-4.545213325091997 -0.36692755334826777 2.792194702055965e-16
-4.427494687462797 -1.0912794291512617 2.792194702055965e-16
-4.195106263084238 -1.7873677409619415 2.792194702055965e-16
-3.854066790079705 -2.437164167142771 2.792194702055965e-16
-3.413209011660222 -3.023839321578025 2.792194702055965e-16
-2.8839509127149223 -3.5321986259341025 2.792194702055965e-16
-2.280000000000002 -3.949075841257039 2.792194702055965e-16
-1.6169982849139635 -4.263674066645491 2.792194702055965e-16
-0.9121171636187632 -4.46784537331274 2.792194702055965e-16
-0.18361268689893304 -4.556301831662357 2.792194702055965e-16
0.5496472619642697 -4.526752465887126 2.792194702055965e-16
1.2686716354590213 -4.379962589039058 2.792194702055965e-16
1.954838079997925 -4.119733981823344 2.792194702055965e-16
2.5903752450940694 -3.7528064284750737 2.792194702055965e-16
3.1588230520037723 -3.288683159887795 2.792194702055965e-16
3.6454590011199626 -2.739384724925187 2.792194702055965e-16
4.037679476978635 -2.119137664519587 2.792194702055965e-16
4.325326175278983 -1.4440060517347169 2.792194702055965e-16
4.5009491976288825 -0.7314754407113884 2.792194702055965e-16
4.56 -1.116877880822386e-15 2.792194702055965e-16
-6.0 -6.0 0.0
-5.368421052631579 -6.0 0.0
-4.7368421052631575 -6.0 0.0
-4.105263157894737 -6.0 0.0
-3.473684210526316 -6.0 0.0
-2.8421052631578947 -6.0 0.0
-2.210526315789474 -6.0 0.0
-1.578947368421053 -6.0 0.0
-0.9473684210526319 -6.0 0.0
-0.3157894736842106 -6.0 0.0
0.3157894736842106 -6.0 0.0
0.947368421052631 -6.0 0.0
1.5789473684210522 -6.0 0.0
2.2105263157894726 -6.0 0.0
2.842105263157894 -6.0 0.0
3.473684210526315 -6.0 0.0
4.105263157894736 -6.0 0.0
4.7368421052631575 -6.0 0.0
5.368421052631579 -6.0 0.0
6.0 -6.0 0.0
-6.0 -5.368421052631579 0.0
-5.368421052631579 -5.368421052631579 0.0
-4.7368421052631575 -5.368421052631579 0.0
-4.105263157894737 -5.368421052631579 0.0
-3.473684210526316 -5.368421052631579 0.0
-2.8421052631578947 -5.368421052631579 0.0
-2.210526315789474 -5.368421052631579 0.0
-1.578947368421053 -5.368421052631579 0.0
-0.9473684210526319 -5.368421052631579 0.0
-0.3157894736842106 -5.368421052631579 0.0
0.3157894736842106 -5.368421052631579 0.0
0.947368421052631 -5.368421052631579 0.0
1.5789473684210522 -5.368421052631579 0.0
2.2105263157894726 -5.368421052631579 0.0
2.842105263157894 -5.368421052631579 0.0
3.473684210526315 -5.368421052631579 0.0
4.105263157894736 -5.368421052631579 0.0
4.7368421052631575 -5.368421052631579 0.0
5.368421052631579 -5.368421052631579 0.0
6.0 -5.368421052631579 0.0
-6.0 -4.7368421052631575 0.0
-5.368421052631579 -4.7368421052631575 0.0
-4.7368421052631575 -4.7368421052631575 0.0
-4.105263157894737 -4.7368421052631575 0.0
-3.473684210526316 -4.7368421052631575 0.0
-2.8421052631578947 -4.7368421052631575 0.0
-2.210526315789474 -4.7368421052631575 0.0
-1.578947368421053 -4.7368421052631575 0.0
-0.9473684210526319 -4.7368421052631575 0.0
-0.3157894736842106 -4.7368421052631575 0.0
0.3157894736842106 -4.7368421052631575 0.0
0.947368421052631 -4.7368421052631575 0.0
1.5789473684210522 -4.7368421052631575 0.0
2.2105263157894726 -4.7368421052631575 0.0
2.842105263157894 -4.7368421052631575 0.0
3.473684210526315 -4.7368421052631575 0.0
4.105263157894736 -4.7368421052631575 0.0
4.7368421052631575 -4.7368421052631575 0.0
5.368421052631579 -4.7368421052631575 0.0
6.0 -4.7368421052631575 0.0
-6.0 -4.105263157894737 0.0
-5.368421052631579 -4.105263157894737 0.0
-4.7368421052631575 -4.105263157894737 0.0
-4.105263157894737 -4.105263157894737 0.0
-3.473684210526316 -4.105263157894737 0.0
-2.8421052631578947 -4.105263157894737 0.0
-2.210526315789474 -4.105263157894737 0.0
2.2105263157894726 -4.105263157894737 0.0
2.842105263157894 -4.105263157894737 0.0
3.473684210526315 -4.105263157894737 0.0
4.105263157894736 -4.105263157894737 0.0
4.7368421052631575 -4.105263157894737 0.0
5.368421052631579 -4.105263157894737 0.0
6.0 -4.105263157894737 0.0
-6.0 -3.473684210526316 0.0
-5.368421052631579 -3.473684210526316 0.0
-4.7368421052631575 -3.473684210526316 0.0
-4.105263157894737 -3.473684210526316 0.0
-3.473684210526316 -3.473684210526316 0.0
3.473684210526315 -3.473684210526316 0.0
4.105263157894736 -3.473684210526316 0.0
4.7368421052631575 -3.473684210526316 0.0
5.368421052631579 -3.473684210526316 0.0
6.0 -3.473684210526316 0.0
-6.0 -2.8421052631578947 0.0
-5.368421052631579 -2.8421052631578947 0.0
-4.7368421052631575 -2.8421052631578947 0.0
-4.105263157894737 -2.8421052631578947 0.0
4.105263157894736 -2.8421052631578947 0.0
4.7368421052631575 -2.8421052631578947 0.0
5.368421052631579 -2.8421052631578947 0.0
6.0 -2.8421052631578947 0.0
-6.0 -2.210526315789474 0.0
-5.368421052631579 -2.210526315789474 0.0
-4.7368421052631575 -2.210526315789474 0.0
-4.105263157894737 -2.210526315789474 0.0
4.105263157894736 -2.210526315789474 0.0
4.7368421052631575 -2.210526315789474 0.0
5.368421052631579 -2.210526315789474 0.0
6.0 -2.210526315789474 0.0
-6.0 -1.578947368421053 0.0
-5.368421052631579 -1.578947368421053 0.0
-4.7368421052631575 -1.578947368421053 0.0
4.7368421052631575 -1.578947368421053 0.0
5.368421052631579 -1.578947368421053 0.0
6.0 -1.578947368421053 0.0
-6.0 -0.9473684210526319 0.0
-5.368421052631579 -0.9473684210526319 0.0
-4.7368421052631575 -0.9473684210526319 0.0
4.7368421052631575 -0.9473684210526319 0.0
5.368421052631579 -0.9473684210526319 0.0
6.0 -0.9473684210526319 0.0
-6.0 -0.3157894736842106 0.0
-5.368421052631579 -0.3157894736842106 0.0
-4.7368421052631575 -0.3157894736842106 0.0
4.7368421052631575 -0.3157894736842106 0.0
5.368421052631579 -0.3157894736842106 0.0
6.0 -0.3157894736842106 0.0
-6.0 0.3157894736842106 0.0
-5.368421052631579 0.3157894736842106 0.0
-4.7368421052631575 0.3157894736842106 0.0
4.7368421052631575 0.3157894736842106 0.0
5.368421052631579 0.3157894736842106 0.0
6.0 0.3157894736842106 0.0
-6.0 0.947368421052631 0.0
-5.368421052631579 0.947368421052631 0.0
-4.7368421052631575 0.947368421052631 0.0
4.7368421052631575 0.947368421052631 0.0
5.368421052631579 0.947368421052631 0.0
6.0 0.947368421052631 0.0
-6.0 1.5789473684210522 0.0
-5.368421052631579 1.5789473684210522 0.0
-4.7368421052631575 1.5789473684210522 0.0
4.7368421052631575 1.5789473684210522 0.0
5.368421052631579 1.5789473684210522 0.0
6.0 1.5789473684210522 0.0
-6.0 2.2105263157894726 0.0
-5.368421052631579 2.2105263157894726 0.0
-4.7368421052631575 2.2105263157894726 0.0
